ply
format ascii 1.0
element vertex 814
property float x
property float y
property float z
property float nx
property float ny
property float nz
element face 0
property list uchar int vertex_indices
end_header
0.140272 -0.0928621 -0.185735 -0.367812 -0.700505 -0.611562
0.133932 -0.0894059 -0.186898 -0.332356 -0.685138 -0.648172
0.128663 -0.0851344 -0.188233 -0.341874 -0.657051 -0.671868
0.124153 -0.0802829 -0.189691 -0.374755 -0.620419 -0.68894
0.120638 -0.0746821 -0.191313 -0.423842 -0.567599 -0.705825
0.117073 -0.0691088 -0.192924 -0.448602 -0.525103 -0.723205
0.113586 -0.0634818 -0.19455 -0.46329 -0.502865 -0.729719
0.110566 -0.0574882 -0.196249 -0.50566 -0.457299 -0.731564
0.106955 -0.0519594 -0.197855 -0.519291 -0.433362 -0.736569
0.105094 -0.0450504 -0.19975 -0.54092 -0.405645 -0.736789
0.120201 -0.024768 -0.204535 -0.564803 -0.386991 -0.728859
0.725526 -0.487347 -0.0662404 0.394409 -0.918878 0.010258
0.669362 -0.509485 -0.0624508 0.194159 -0.980827 -0.0168096
0.649715 -0.512119 -0.0624789 0.130829 -0.990809 -0.0344045
0.633538 -0.51295 -0.0628598 0.0520264 -0.995548 -0.0786031
0.615194 -0.515012 -0.0629982 0.00818221 -0.99453 -0.104139
0.601303 -0.514702 -0.0635952 -0.0262809 -0.990942 -0.131697
0.589433 -0.513324 -0.0644015 -0.05826 -0.986985 -0.14989
0.576833 -0.512396 -0.0651144 -0.0918447 -0.982896 -0.159625
0.562603 -0.512397 -0.0656468 -0.133879 -0.975683 -0.173551
0.551939 -0.510478 -0.0665567 -0.177762 -0.967631 -0.179144
0.542969 -0.507634 -0.0676412 -0.219496 -0.957941 -0.184853
0.534162 -0.504722 -0.0687431 -0.27389 -0.942933 -0.189375
0.524641 -0.502245 -0.0697581 -0.310828 -0.93045 -0.194032
0.516354 -0.499089 -0.0709018 -0.337411 -0.919354 -0.202346
0.50925 -0.495284 -0.0721746 -0.36313 -0.907203 -0.212414
0.502414 -0.491351 -0.0734783 -0.381546 -0.896662 -0.224546
0.495489 -0.487475 -0.0747609 -0.4004 -0.885479 -0.235812
0.48821 -0.483817 -0.0760081 -0.416249 -0.874938 -0.247432
0.481411 -0.479901 -0.0772953 -0.428347 -0.865273 -0.26043
0.474437 -0.476107 -0.0785637 -0.447647 -0.851365 -0.273482
0.46663 -0.472808 -0.0797352 -0.472699 -0.832557 -0.288799
0.458822 -0.469524 -0.0808958 -0.501316 -0.809781 -0.304858
0.452174 -0.465583 -0.0821924 -0.532911 -0.782183 -0.322795
0.446138 -0.461299 -0.0835525 -0.566355 -0.750813 -0.339884
0.440896 -0.456553 -0.0850118 -0.597042 -0.720031 -0.353691
0.436456 -0.451345 -0.0865541 -0.609573 -0.703725 -0.364955
0.432965 -0.445577 -0.0882199 -0.608222 -0.700746 -0.372857
0.430241 -0.439351 -0.0899713 -0.580571 -0.731465 -0.357625
0.427408 -0.43319 -0.0917165 -0.574829 -0.739234 -0.350864
0.423759 -0.427513 -0.0933604 -0.555039 -0.762821 -0.331715
0.419004 -0.422509 -0.0948668 -0.415501 -0.866159 -0.277718
0.406247 -0.422345 -0.0953842 -0.235762 -0.965491 -0.110661
0.391091 -0.423684 -0.0955935 -0.112565 -0.993031 0.0349394
0.37493 -0.425685 -0.0956602 -0.0155139 -0.99132 0.130559
0.359944 -0.427026 -0.0958621 0.00196294 -0.986318 0.164849
0.347449 -0.426897 -0.0963626 -0.0490788 -0.989049 0.13919
0.335822 -0.426269 -0.0969638 -0.117528 -0.987662 0.103507
0.32505 -0.425151 -0.0976593 -0.18756 -0.979618 0.0719093
0.314868 -0.423695 -0.0984256 -0.263272 -0.964239 0.0305241
0.305769 -0.421601 -0.0993228 -0.339117 -0.940705 -0.0085344
0.297615 -0.418945 -0.100329 -0.408114 -0.91235 -0.0325812
0.290326 -0.415757 -0.101445 -0.461589 -0.884483 -0.068032
0.28445 -0.411705 -0.102744 -0.507393 -0.856216 -0.0972049
0.278941 -0.407427 -0.104079 -0.549564 -0.824589 -0.134286
0.273929 -0.402854 -0.105486 -0.573333 -0.801716 -0.168943
0.269201 -0.398095 -0.106925 -0.594191 -0.780943 -0.19252
0.264325 -0.39344 -0.108338 -0.616134 -0.756023 -0.220929
0.259366 -0.388851 -0.109745 -0.636379 -0.730438 -0.247956
0.254242 -0.384366 -0.111125 -0.65681 -0.703205 -0.272219
0.248338 -0.380397 -0.112399 -0.681361 -0.676022 -0.280611
0.242875 -0.376154 -0.11373 -0.708942 -0.6387 -0.299103
0.238603 -0.371145 -0.115218 -0.733827 -0.599982 -0.318622
0.234751 -0.365868 -0.116763 -0.762688 -0.55585 -0.330662
0.231577 -0.360145 -0.118406 -0.792329 -0.507061 -0.339268
0.22906 -0.353993 -0.120129 -0.816661 -0.462529 -0.345157
0.227214 -0.347383 -0.121953 -0.840728 -0.420284 -0.341376
0.227137 -0.339595 -0.124027 -0.861706 -0.382087 -0.333875
0.226137 -0.332406 -0.125973 -0.878044 -0.352749 -0.323431
0.225517 -0.324954 -0.127978 -0.890252 -0.334819 -0.308787
0.223574 -0.318373 -0.129797 -0.899299 -0.321167 -0.296838
0.221409 -0.311932 -0.131586 -0.903569 -0.320777 -0.284019
0.218985 -0.305659 -0.133345 -0.906383 -0.322012 -0.273459
0.217197 -0.298957 -0.135194 -0.906918 -0.326424 -0.266359
0.214956 -0.292549 -0.136975 -0.908204 -0.328146 -0.259781
0.212637 -0.286191 -0.138753 -0.908455 -0.327075 -0.260254
0.210134 -0.279947 -0.140502 -0.908188 -0.327773 -0.260305
0.20765 -0.273692 -0.142255 -0.906021 -0.335598 -0.257877
0.205275 -0.267358 -0.144031 -0.903104 -0.352194 -0.245691
0.203279 -0.260759 -0.145859 -0.899958 -0.370146 -0.230361
0.201858 -0.253746 -0.147771 -0.897751 -0.388754 -0.207154
0.20132 -0.246101 -0.14982 -0.8982 -0.401298 -0.179433
0.199911 -0.239065 -0.151745 -0.903203 -0.402022 -0.150339
0.197443 -0.232749 -0.153509 -0.909882 -0.395455 -0.125427
0.193722 -0.227328 -0.155091 -0.919762 -0.378708 -0.103047
0.189628 -0.222166 -0.156615 -0.928571 -0.358706 -0.0953293
0.187412 -0.21567 -0.158423 -0.936264 -0.340132 -0.0878655
0.186167 -0.20847 -0.160377 -0.94439 -0.31624 -0.0901151
0.185377 -0.200946 -0.162407 -0.952568 -0.285791 -0.104587
0.184936 -0.193142 -0.1645 -0.956154 -0.264703 -0.125298
0.184121 -0.185606 -0.166528 -0.956464 -0.248986 -0.152257
0.18296 -0.178299 -0.168515 -0.954985 -0.242116 -0.171415
0.181776 -0.170996 -0.170497 -0.951632 -0.241154 -0.190372
0.179661 -0.164366 -0.172342 -0.949256 -0.238862 -0.204597
0.177349 -0.157874 -0.17415 -0.949419 -0.230439 -0.213309
0.174728 -0.151595 -0.175911 -0.950768 -0.2154 -0.222809
0.172335 -0.145145 -0.177717 -0.948798 -0.209524 -0.236393
0.17005 -0.138612 -0.179539 -0.939878 -0.221332 -0.260081
0.168602 -0.131455 -0.181494 -0.913643 -0.273293 -0.300943
0.169673 -0.122402 -0.183854 -0.884453 -0.293796 -0.362531
0.172077 -0.112342 -0.186439 -0.841493 -0.347584 -0.413612
0.174625 -0.102129 -0.189054 -0.787645 -0.389202 -0.477637
0.172108 -0.0957064 -0.190855 -0.684107 -0.509474 -0.521952
0.164711 -0.092958 -0.191862 -0.567607 -0.592466 -0.571672
0.156011 -0.0912246 -0.192647 -0.478664 -0.64536 -0.595308
0.147891 -0.0890672 -0.193518 -0.41052 -0.673515 -0.614696
0.141122 -0.0859171 -0.194609 -0.373432 -0.659094 -0.652798
0.136233 -0.0813284 -0.196008 -0.363921 -0.651588 -0.665578
0.132169 -0.0761255 -0.197546 -0.385573 -0.619773 -0.683532
0.128357 -0.0707285 -0.199116 -0.437237 -0.55764 -0.705595
0.124956 -0.0650101 -0.200762 -0.4619 -0.53239 -0.709372
0.121175 -0.0595889 -0.202342 -0.477628 -0.507905 -0.71687
0.117951 -0.053742 -0.204018 -0.497771 -0.47752 -0.724017
0.114707 -0.0479039 -0.205687 -0.515008 -0.457815 -0.724688
0.112562 -0.0411969 -0.207552 -0.533544 -0.438618 -0.72315
0.675628 -0.508089 -0.0700758 0.201297 -0.978965 -0.0333041
0.654581 -0.511462 -0.0699239 0.130787 -0.990198 -0.0490428
0.639484 -0.51169 -0.0704027 0.0642404 -0.994477 -0.0830146
0.621553 -0.513504 -0.0705621 0.0089029 -0.993954 -0.109444
0.606153 -0.514001 -0.0709745 -0.0295448 -0.989806 -0.139327
0.59438 -0.512561 -0.0717782 -0.0590425 -0.984698 -0.163965
0.582646 -0.511143 -0.0725758 -0.079052 -0.980381 -0.18057
0.568241 -0.511231 -0.073071 -0.118491 -0.972675 -0.199658
0.556426 -0.509927 -0.0738404 -0.154158 -0.965892 -0.208061
0.546865 -0.507398 -0.0748488 -0.199969 -0.957206 -0.209212
0.538109 -0.504455 -0.0759516 -0.24819 -0.944611 -0.214742
0.528771 -0.501859 -0.076972 -0.290706 -0.933037 -0.211974
0.520086 -0.498916 -0.0780697 -0.33334 -0.917851 -0.21549
0.512168 -0.495566 -0.0792405 -0.357161 -0.905517 -0.229077
0.504978 -0.49182 -0.0805007 -0.381209 -0.893057 -0.239021
0.497954 -0.488002 -0.0817705 -0.401307 -0.880579 -0.252062
0.491196 -0.484037 -0.0830653 -0.416672 -0.869106 -0.266533
0.484592 -0.480008 -0.0843789 -0.429073 -0.85852 -0.280786
0.477965 -0.475999 -0.0856802 -0.44668 -0.844088 -0.296639
0.471023 -0.472183 -0.0869431 -0.468157 -0.826866 -0.311643
0.463612 -0.468667 -0.0881454 -0.493769 -0.805762 -0.327019
0.456602 -0.464927 -0.0893966 -0.521936 -0.78009 -0.345029
0.450152 -0.460873 -0.0907003 -0.556784 -0.748174 -0.360872
0.444487 -0.456374 -0.0921084 -0.587984 -0.718684 -0.371173
0.439933 -0.451223 -0.0936405 -0.603348 -0.700527 -0.381095
0.436131 -0.445629 -0.0952698 -0.621158 -0.678132 -0.392808
0.433363 -0.439429 -0.0970191 -0.565732 -0.734867 -0.374055
0.430682 -0.433171 -0.0987815 -0.556742 -0.745964 -0.365483
0.42774 -0.427065 -0.100516 -0.536004 -0.769471 -0.347293
0.422977 -0.422047 -0.102027 -0.419012 -0.853169 -0.310696
0.409781 -0.422143 -0.102468 -0.276276 -0.949544 -0.148454
0.391219 -0.425529 -0.102231 -0.0542604 -0.997624 0.0424666
0.375001 -0.427566 -0.102264 0.0156332 -0.991677 0.127805
0.360334 -0.428706 -0.102484 -0.00348243 -0.990675 0.136214
0.349407 -0.427605 -0.103164 -0.0573878 -0.99274 0.105712
0.339271 -0.426052 -0.103942 -0.124964 -0.989675 0.0702039
0.329179 -0.424498 -0.104716 -0.172643 -0.984128 0.0410702
0.319313 -0.422838 -0.105511 -0.263695 -0.964525 -0.0125687
0.309358 -0.421263 -0.106286 -0.334436 -0.941209 -0.0477544
0.301077 -0.418673 -0.107273 -0.400059 -0.912986 -0.0800648
0.29314 -0.415895 -0.108296 -0.46423 -0.877753 -0.118489
0.286949 -0.412033 -0.109548 -0.511027 -0.84594 -0.15244
0.281189 -0.407908 -0.110846 -0.556216 -0.809335 -0.188683
0.276089 -0.403377 -0.112242 -0.576587 -0.787863 -0.216378
0.271684 -0.398411 -0.113717 -0.597559 -0.763121 -0.24611
0.267259 -0.393469 -0.115197 -0.614624 -0.738003 -0.278548
0.262966 -0.38844 -0.116692 -0.629948 -0.71471 -0.303901
0.259208 -0.383073 -0.118257 -0.645291 -0.691325 -0.325069
0.254257 -0.378469 -0.119658 -0.663566 -0.666066 -0.340641
0.250198 -0.373303 -0.12118 -0.688687 -0.63314 -0.353334
0.24604 -0.368205 -0.122686 -0.715447 -0.596671 -0.363483
0.241473 -0.363376 -0.124136 -0.742383 -0.559068 -0.369206
0.237311 -0.358287 -0.125641 -0.769657 -0.518177 -0.372989
0.234805 -0.352114 -0.127375 -0.795594 -0.478168 -0.372003
0.23285 -0.345569 -0.129194 -0.81986 -0.44035 -0.365955
0.231712 -0.33847 -0.131124 -0.841944 -0.404823 -0.35672
0.229649 -0.33198 -0.132933 -0.859066 -0.376993 -0.34624
0.227911 -0.325272 -0.134778 -0.872523 -0.354517 -0.336187
0.22564 -0.318904 -0.13656 -0.883878 -0.343165 -0.317801
0.223406 -0.31251 -0.138338 -0.889738 -0.338707 -0.306014
0.221379 -0.305963 -0.140156 -0.892913 -0.338319 -0.297064
0.220425 -0.298691 -0.142132 -0.895626 -0.334581 -0.293101
0.218837 -0.291836 -0.144015 -0.8968 -0.331462 -0.293057
0.217628 -0.284711 -0.145958 -0.894095 -0.331845 -0.300788
0.215706 -0.278062 -0.147798 -0.893023 -0.33712 -0.298092
0.213332 -0.271726 -0.149574 -0.890807 -0.348765 -0.291249
0.21052 -0.265671 -0.151284 -0.887714 -0.369698 -0.274385
0.20941 -0.258446 -0.153251 -0.880645 -0.394971 -0.261656
0.208459 -0.251092 -0.155245 -0.876058 -0.421036 -0.235056
0.206468 -0.24446 -0.157088 -0.876938 -0.43468 -0.205021
0.202667 -0.239082 -0.158652 -0.882447 -0.435134 -0.178735
0.199267 -0.233422 -0.160284 -0.890627 -0.426323 -0.158215
0.195012 -0.228369 -0.161782 -0.904155 -0.405843 -0.1334
0.19111 -0.223071 -0.163337 -0.917418 -0.378412 -0.123077
0.188423 -0.216902 -0.165079 -0.928925 -0.350726 -0.1187
0.186436 -0.210237 -0.166921 -0.938479 -0.321979 -0.124843
0.185419 -0.202874 -0.168924 -0.946898 -0.290223 -0.138406
0.184885 -0.19515 -0.170999 -0.952962 -0.257605 -0.159698
0.184454 -0.187332 -0.173097 -0.953505 -0.24052 -0.1816
0.183777 -0.179677 -0.175162 -0.951281 -0.234463 -0.200227
0.182705 -0.1723 -0.177166 -0.947074 -0.235401 -0.21826
0.180655 -0.165615 -0.179026 -0.944723 -0.234821 -0.228818
0.178343 -0.159124 -0.180834 -0.943803 -0.229164 -0.238159
0.175721 -0.152849 -0.182602 -0.945296 -0.213506 -0.246638
0.173622 -0.146184 -0.184454 -0.948358 -0.191758 -0.252676
0.171804 -0.139304 -0.186355 -0.942805 -0.192209 -0.272352
0.171405 -0.131366 -0.188485 -0.926982 -0.213505 -0.308416
0.17282 -0.122056 -0.190913 -0.899552 -0.237002 -0.366929
0.175188 -0.11201 -0.193505 -0.855973 -0.284998 -0.431377
0.178815 -0.100994 -0.196312 -0.792391 -0.340054 -0.506438
0.177166 -0.0939136 -0.198259 -0.725584 -0.42833 -0.538575
0.171682 -0.0897068 -0.199577 -0.617626 -0.540281 -0.571522
0.163134 -0.0878297 -0.200381 -0.537648 -0.588986 -0.603348
0.155352 -0.0854059 -0.201308 -0.458851 -0.633705 -0.622796
0.148883 -0.0819948 -0.202448 -0.417626 -0.633926 -0.650942
0.144115 -0.0773 -0.203868 -0.39115 -0.63789 -0.6634
0.139911 -0.0721867 -0.205383 -0.399167 -0.615474 -0.6796
0.136005 -0.0668381 -0.206949 -0.444147 -0.564671 -0.695615
0.133007 -0.0607979 -0.208666 -0.469095 -0.53941 -0.699276
0.129529 -0.0551241 -0.210302 -0.487469 -0.513753 -0.705998
0.125731 -0.0496955 -0.211885 -0.508877 -0.481219 -0.713774
0.121338 -0.0447322 -0.213365 -0.523597 -0.460582 -0.716736
0.121598 -0.0361294 -0.215646 -0.542746 -0.44322 -0.71343
0.68548 -0.504778 -0.0781142 0.252267 -0.966664 -0.0438624
0.659501 -0.51078 -0.0773933 0.143646 -0.986994 -0.0721875
0.643814 -0.51131 -0.0777837 0.0644591 -0.993322 -0.0956983
0.62705 -0.512477 -0.0780453 0.0126356 -0.99326 -0.115226
0.611075 -0.513272 -0.0783839 -0.0322496 -0.989137 -0.143418
0.599554 -0.511681 -0.0792012 -0.0644979 -0.983138 -0.171113
0.587836 -0.51023 -0.0799883 -0.0851778 -0.976861 -0.196188
0.574915 -0.509481 -0.0806324 -0.111602 -0.969409 -0.218615
0.562309 -0.508598 -0.0812958 -0.14108 -0.962206 -0.232929
0.55091 -0.50709 -0.0820898 -0.180299 -0.954635 -0.236994
0.541563 -0.504461 -0.0831117 -0.232599 -0.94346 -0.236181
0.532825 -0.501521 -0.0841974 -0.274259 -0.932002 -0.236971
0.524457 -0.498389 -0.0853185 -0.314887 -0.918166 -0.240453
0.51618 -0.495231 -0.0864448 -0.34739 -0.903666 -0.25042
0.508441 -0.491786 -0.0876367 -0.376996 -0.889195 -0.259244
0.501166 -0.488103 -0.0888661 -0.398575 -0.875601 -0.27288
0.494368 -0.484159 -0.0901535 -0.417262 -0.861888 -0.288169
0.487729 -0.480132 -0.0914611 -0.430274 -0.84985 -0.304338
0.481238 -0.476041 -0.0927702 -0.445008 -0.835729 -0.321757
0.474778 -0.471944 -0.0940937 -0.463606 -0.819746 -0.336286
0.468263 -0.467886 -0.0953965 -0.485979 -0.799781 -0.352385
0.461665 -0.463895 -0.096693 -0.512689 -0.7744 -0.370748
0.454867 -0.460037 -0.097959 -0.543168 -0.745678 -0.385921
0.449215 -0.455517 -0.0993557 -0.575482 -0.714395 -0.39807
0.444508 -0.450448 -0.100874 -0.592855 -0.694549 -0.407583
0.440433 -0.445011 -0.102468 -0.611905 -0.675415 -0.411567
0.437027 -0.439184 -0.104141 -0.554864 -0.733758 -0.39208
0.434453 -0.432856 -0.105925 -0.528241 -0.756652 -0.38528
0.431921 -0.426496 -0.107714 -0.512259 -0.780773 -0.357752
0.427086 -0.421517 -0.109207 -0.480659 -0.808928 -0.338533
0.419662 -0.41811 -0.110377 -0.246328 -0.948215 -0.200533
0.393575 -0.426026 -0.10915 -0.0159329 -0.999318 0.0333399
0.375873 -0.428951 -0.108966 0.0369835 -0.992444 0.116997
0.361691 -0.429786 -0.109229 -0.00768367 -0.99436 0.105782
0.351143 -0.428453 -0.109946 -0.0757197 -0.994645 0.07035
0.341015 -0.426882 -0.110712 -0.12989 -0.990702 0.0404873
0.331428 -0.425013 -0.111537 -0.190757 -0.981627 -0.00469231
0.321944 -0.423111 -0.11237 -0.267797 -0.962029 -0.0527711
0.312562 -0.421173 -0.113209 -0.342291 -0.935045 -0.0923516
0.304068 -0.418711 -0.114162 -0.396408 -0.909021 -0.128624
0.296037 -0.41598 -0.115167 -0.463645 -0.871215 -0.1613
0.289596 -0.412258 -0.116378 -0.515565 -0.834243 -0.195524
0.28383 -0.408138 -0.117675 -0.560391 -0.794748 -0.233106
0.278709 -0.403617 -0.119064 -0.577783 -0.774701 -0.256918
0.274487 -0.398528 -0.120567 -0.601407 -0.745836 -0.286422
0.270348 -0.393392 -0.12208 -0.61943 -0.719982 -0.312942
0.266294 -0.388206 -0.123607 -0.632613 -0.69794 -0.335683
0.262354 -0.382944 -0.125148 -0.642635 -0.679651 -0.353689
0.25887 -0.377393 -0.126755 -0.658188 -0.656147 -0.369136
0.255717 -0.371631 -0.128405 -0.676428 -0.627419 -0.385734
0.251848 -0.366328 -0.129957 -0.699479 -0.598237 -0.390951
0.248277 -0.360837 -0.131551 -0.723461 -0.566722 -0.394247
0.244935 -0.355194 -0.133174 -0.754494 -0.527614 -0.390336
0.241754 -0.349446 -0.134815 -0.781371 -0.490847 -0.385395
0.238724 -0.343596 -0.136483 -0.804076 -0.459705 -0.377005
0.236247 -0.337381 -0.138232 -0.82651 -0.424342 -0.369885
0.233759 -0.331165 -0.139982 -0.844583 -0.396792 -0.359495
0.231083 -0.325072 -0.141699 -0.859259 -0.375137 -0.347772
0.227929 -0.319294 -0.143353 -0.870087 -0.361458 -0.335106
0.225405 -0.313089 -0.145104 -0.87711 -0.353962 -0.324638
0.223392 -0.306535 -0.146923 -0.882937 -0.348815 -0.314248
0.222628 -0.299127 -0.14893 -0.886607 -0.340731 -0.312781
0.22235 -0.291374 -0.151013 -0.888668 -0.335515 -0.312569
0.222586 -0.283264 -0.153173 -0.889975 -0.334814 -0.309589
0.221096 -0.276313 -0.155084 -0.887726 -0.343589 -0.306412
0.219334 -0.269536 -0.156956 -0.881659 -0.36367 -0.300703
0.217191 -0.263016 -0.158778 -0.875752 -0.388261 -0.2869
0.214875 -0.256603 -0.160567 -0.8683 -0.417175 -0.26837
0.212433 -0.250276 -0.162348 -0.862166 -0.442769 -0.246221
0.20842 -0.245039 -0.163881 -0.860263 -0.457441 -0.225159
0.20462 -0.239663 -0.165453 -0.863772 -0.463584 -0.197455
0.200134 -0.234765 -0.166919 -0.874343 -0.451221 -0.178667
0.195731 -0.229815 -0.16839 -0.888543 -0.430351 -0.159028
0.19166 -0.22463 -0.169918 -0.90257 -0.403907 -0.149081
0.188889 -0.218527 -0.171644 -0.919328 -0.364834 -0.147421
0.187162 -0.211679 -0.173536 -0.931737 -0.328876 -0.153971
0.185967 -0.204445 -0.175511 -0.942628 -0.287554 -0.16961
0.184838 -0.197147 -0.177502 -0.948561 -0.25437 -0.188487
0.184977 -0.188923 -0.179697 -0.950335 -0.232176 -0.207263
0.184468 -0.181154 -0.181796 -0.947253 -0.2263 -0.226935
0.183481 -0.173714 -0.183816 -0.94382 -0.229169 -0.238088
0.181546 -0.166944 -0.185693 -0.941767 -0.230203 -0.245113
0.179686 -0.160124 -0.187583 -0.94082 -0.228342 -0.250436
0.177586 -0.153459 -0.189435 -0.943306 -0.214476 -0.253328
0.176122 -0.146322 -0.191396 -0.945669 -0.186401 -0.266392
0.174921 -0.138991 -0.193401 -0.942032 -0.17533 -0.286069
0.174751 -0.13087 -0.195576 -0.931564 -0.166436 -0.323245
0.175702 -0.12191 -0.19794 -0.901666 -0.205466 -0.380502
0.177798 -0.11207 -0.200502 -0.868669 -0.221734 -0.443
0.18346 -0.0995229 -0.203662 -0.810522 -0.261438 -0.524123
0.182695 -0.0917688 -0.205767 -0.741526 -0.371361 -0.558776
0.178672 -0.0864464 -0.207329 -0.654676 -0.464789 -0.596129
0.170546 -0.0842356 -0.208198 -0.567677 -0.545739 -0.616371
0.162909 -0.0816714 -0.209144 -0.498345 -0.592763 -0.632682
0.155954 -0.0786187 -0.210199 -0.438638 -0.623889 -0.646809
0.150757 -0.0742334 -0.211546 -0.415818 -0.624234 -0.661385
0.146946 -0.0687958 -0.213132 -0.410579 -0.615844 -0.67243
0.143472 -0.0631011 -0.214772 -0.447008 -0.571072 -0.688521
0.140586 -0.056955 -0.216519 -0.47903 -0.541412 -0.690944
0.137009 -0.051338 -0.218141 -0.491268 -0.522682 -0.696749
0.132949 -0.046096 -0.219682 -0.513964 -0.491582 -0.702985
0.1294 -0.0404553 -0.221315 -0.530914 -0.457205 -0.713508
0.129256 -0.0321576 -0.223537 -0.547708 -0.43515 -0.714605
0.702698 -0.497529 -0.0870057 0.333208 -0.941233 -0.0552618
0.665617 -0.509456 -0.085014 0.168014 -0.982739 -0.0774474
0.648949 -0.510503 -0.0852788 0.0840961 -0.990641 -0.107502
0.632469 -0.511496 -0.085548 0.0217892 -0.992103 -0.123532
0.61632 -0.512365 -0.085838 -0.0390424 -0.987773 -0.150936
0.604318 -0.511026 -0.0865926 -0.0789502 -0.980245 -0.181348
0.593889 -0.508854 -0.0875183 -0.0977627 -0.973237 -0.207978
0.582534 -0.50723 -0.0883202 -0.112833 -0.966315 -0.231313
0.569662 -0.506473 -0.0889463 -0.132481 -0.958366 -0.252951
0.557053 -0.505612 -0.0895818 -0.158589 -0.950769 -0.266251
0.545895 -0.503976 -0.0903851 -0.202353 -0.941012 -0.271201
0.536844 -0.501199 -0.0914304 -0.25347 -0.929446 -0.26811
0.528049 -0.498305 -0.0924941 -0.296273 -0.916574 -0.268542
0.519884 -0.495071 -0.0936283 -0.338012 -0.900748 -0.272768
0.512164 -0.491611 -0.0948065 -0.368324 -0.885675 -0.282696
0.504717 -0.488009 -0.0960174 -0.39487 -0.869955 -0.295392
0.497629 -0.484225 -0.0972696 -0.416397 -0.854323 -0.311041
0.491224 -0.48006 -0.0985958 -0.433388 -0.83893 -0.329199
0.485035 -0.475786 -0.0999447 -0.444117 -0.826488 -0.345944
0.478843 -0.471519 -0.10129 -0.457242 -0.811535 -0.36379
0.47247 -0.467377 -0.10261 -0.480129 -0.791013 -0.379176
0.466004 -0.463298 -0.103914 -0.502527 -0.766674 -0.399598
0.459812 -0.459076 -0.10525 -0.533504 -0.740908 -0.407959
0.453956 -0.454666 -0.106623 -0.562188 -0.712146 -0.420467
0.449154 -0.449644 -0.108131 -0.581171 -0.691866 -0.428442
0.445016 -0.444235 -0.109716 -0.593953 -0.677634 -0.433629
0.441427 -0.438498 -0.111376 -0.544968 -0.731472 -0.409829
0.43821 -0.432545 -0.113077 -0.518483 -0.75618 -0.399207
0.435494 -0.42629 -0.114842 -0.492066 -0.787719 -0.370634
0.431774 -0.420638 -0.116485 -0.448131 -0.824486 -0.345548
0.426371 -0.41599 -0.117905 -0.265562 -0.934169 -0.23834
0.396003 -0.426481 -0.116084 0.00763284 -0.999806 0.0182235
0.377479 -0.429894 -0.115768 0.044377 -0.995 0.0894735
0.363527 -0.430581 -0.116038 -0.0247799 -0.997387 0.0678789
0.352223 -0.429701 -0.116646 -0.0779986 -0.996225 0.0381283
0.342039 -0.428168 -0.117392 -0.144511 -0.989493 0.00479125
0.332432 -0.426308 -0.118203 -0.209578 -0.97662 -0.0478585
0.322901 -0.424429 -0.119018 -0.274299 -0.957879 -0.0850311
0.313897 -0.422241 -0.119898 -0.348901 -0.928095 -0.13003
0.305784 -0.419538 -0.120888 -0.401381 -0.901957 -0.159275
0.298433 -0.416373 -0.12198 -0.462501 -0.864044 -0.1988
0.292275 -0.412479 -0.123221 -0.517254 -0.822491 -0.236554
0.286744 -0.408194 -0.124552 -0.566278 -0.778683 -0.270152
0.281736 -0.403597 -0.125948 -0.579706 -0.762007 -0.288593
0.277613 -0.398443 -0.127473 -0.608067 -0.72917 -0.313953
0.273542 -0.393257 -0.128992 -0.626884 -0.703004 -0.335861
0.269453 -0.388085 -0.130518 -0.63836 -0.683036 -0.354905
0.265525 -0.382816 -0.13206 -0.643562 -0.66914 -0.371591
0.261747 -0.377444 -0.133629 -0.655516 -0.648195 -0.387481
0.258414 -0.371794 -0.135253 -0.668914 -0.626369 -0.400272
0.254879 -0.366272 -0.136849 -0.68678 -0.601724 -0.407753
0.251171 -0.360858 -0.138422 -0.709088 -0.575365 -0.407614
0.247934 -0.355144 -0.140059 -0.735088 -0.543331 -0.405508
0.24523 -0.349079 -0.14178 -0.765884 -0.506673 -0.395859
0.242277 -0.343168 -0.143461 -0.788498 -0.476693 -0.388631
0.239375 -0.337227 -0.145154 -0.811336 -0.446072 -0.37783
0.236321 -0.331381 -0.146822 -0.831362 -0.419892 -0.364045
0.233154 -0.325611 -0.148476 -0.849388 -0.394628 -0.35044
0.230167 -0.319716 -0.150149 -0.862511 -0.378796 -0.335543
0.227585 -0.313546 -0.15189 -0.872482 -0.366865 -0.322777
0.225608 -0.306967 -0.153727 -0.87822 -0.358557 -0.316491
0.224918 -0.299506 -0.155748 -0.884265 -0.345603 -0.31406
0.224232 -0.292037 -0.157779 -0.887533 -0.337115 -0.314067
0.22368 -0.284455 -0.159831 -0.888254 -0.335891 -0.313339
0.222256 -0.277456 -0.161755 -0.884915 -0.347567 -0.310038
0.220616 -0.270593 -0.163651 -0.878963 -0.370449 -0.300317
0.218952 -0.263745 -0.165546 -0.871129 -0.398283 -0.287237
0.216778 -0.257234 -0.167361 -0.860401 -0.431095 -0.271784
0.214001 -0.251134 -0.169088 -0.852624 -0.457356 -0.252702
0.209933 -0.24594 -0.170617 -0.846536 -0.478188 -0.233909
0.205562 -0.240955 -0.1721 -0.845477 -0.489327 -0.213846
0.20098 -0.236117 -0.173545 -0.858071 -0.473339 -0.199161
0.196559 -0.231179 -0.175016 -0.872886 -0.45058 -0.187207
0.193216 -0.225485 -0.176651 -0.888528 -0.423695 -0.176071
0.1905 -0.219341 -0.178389 -0.908548 -0.379078 -0.175617
0.188845 -0.212436 -0.180297 -0.924909 -0.332983 -0.183484
0.187759 -0.205123 -0.182296 -0.936521 -0.284775 -0.204533
0.187291 -0.197348 -0.184401 -0.944681 -0.246429 -0.216447
0.18648 -0.189806 -0.186452 -0.944984 -0.227619 -0.234935
0.185578 -0.182318 -0.18849 -0.942519 -0.222878 -0.248964
0.184714 -0.174793 -0.190543 -0.939835 -0.225722 -0.256436
0.183366 -0.167597 -0.192513 -0.938751 -0.22898 -0.257519
0.181855 -0.160513 -0.194465 -0.93824 -0.228435 -0.259852
0.180193 -0.153528 -0.1964 -0.940357 -0.210107 -0.26755
0.178908 -0.146264 -0.198389 -0.944722 -0.178682 -0.274909
0.177834 -0.138824 -0.200423 -0.946044 -0.137325 -0.2935
0.177411 -0.130894 -0.202561 -0.93513 -0.125372 -0.331381
0.178011 -0.122186 -0.204883 -0.911268 -0.135806 -0.388777
0.180417 -0.112118 -0.207508 -0.881604 -0.15431 -0.446052
0.186611 -0.0991732 -0.210776 -0.813433 -0.210971 -0.54205
0.187758 -0.0899749 -0.21321 -0.752954 -0.322269 -0.573762
0.184831 -0.0838193 -0.214963 -0.67209 -0.424391 -0.606784
0.177554 -0.0809487 -0.215964 -0.591821 -0.513037 -0.621725
0.170309 -0.0780715 -0.216979 -0.539354 -0.540685 -0.645567
0.163684 -0.074738 -0.218085 -0.477842 -0.591701 -0.649275
0.158147 -0.0706024 -0.219381 -0.440244 -0.615375 -0.653834
0.154501 -0.0650162 -0.220995 -0.430217 -0.605212 -0.669801
0.151019 -0.0593083 -0.222639 -0.43939 -0.590606 -0.676847
0.147705 -0.0534727 -0.22432 -0.477244 -0.542681 -0.691183
0.144515 -0.0475362 -0.226014 -0.490611 -0.524616 -0.695759
0.140482 -0.0422526 -0.227561 -0.51254 -0.494052 -0.702295
0.135787 -0.0374913 -0.228999 -0.537771 -0.466725 -0.702118
0.137371 -0.0278255 -0.231541 -0.550122 -0.448956 -0.704134
0.672328 -0.507826 -0.0927162 0.180971 -0.979248 -0.0912446
0.654367 -0.50954 -0.0928168 0.0896629 -0.989589 -0.112581
0.638016 -0.510452 -0.0930754 0.0363497 -0.990128 -0.135383
0.621496 -0.511506 -0.0933106 -0.0394462 -0.986099 -0.161412
0.608998 -0.510423 -0.0939875 -0.0839341 -0.97841 -0.188866
0.59868 -0.508184 -0.0949104 -0.103956 -0.971826 -0.211539
0.589168 -0.505519 -0.0959229 -0.124879 -0.963508 -0.236766
0.577373 -0.504155 -0.0966578 -0.137705 -0.954279 -0.265309
0.564517 -0.503408 -0.0972569 -0.151662 -0.94627 -0.285609
0.552287 -0.502358 -0.0979253 -0.17772 -0.937975 -0.297692
0.541824 -0.500356 -0.0987913 -0.21919 -0.927161 -0.303859
0.53287 -0.497535 -0.0998295 -0.268863 -0.914899 -0.301122
0.524176 -0.494589 -0.100889 -0.316172 -0.897929 -0.306201
0.516343 -0.491175 -0.102051 -0.355083 -0.881463 -0.311354
0.508469 -0.487811 -0.103205 -0.387627 -0.863944 -0.321476
0.501264 -0.484082 -0.104431 -0.412526 -0.846465 -0.336632
0.49498 -0.479837 -0.105773 -0.431223 -0.829468 -0.355009
0.489018 -0.475428 -0.107141 -0.444447 -0.813336 -0.375436
0.483446 -0.470793 -0.108566 -0.456646 -0.797903 -0.393478
0.477311 -0.466504 -0.109912 -0.470817 -0.779932 -0.412357
0.471172 -0.462224 -0.111257 -0.493925 -0.756054 -0.429443
0.465038 -0.457951 -0.1126 -0.518323 -0.731262 -0.443393
0.459145 -0.453554 -0.113967 -0.541583 -0.706607 -0.455405
0.453727 -0.44888 -0.115393 -0.563271 -0.68859 -0.456694
0.448814 -0.443921 -0.116881 -0.574204 -0.680644 -0.454989
0.445427 -0.438067 -0.118566 -0.522198 -0.739052 -0.425572
0.442376 -0.431998 -0.120294 -0.48942 -0.766175 -0.416465
0.439619 -0.42576 -0.122059 -0.456893 -0.79929 -0.390366
0.436156 -0.41994 -0.123733 -0.42904 -0.834019 -0.346898
0.431567 -0.414804 -0.125265 -0.229261 -0.943957 -0.237457
0.399203 -0.426471 -0.123123 0.0331157 -0.999435 -0.00577866
0.379908 -0.430336 -0.122684 0.0511403 -0.996584 0.0648705
0.365754 -0.43114 -0.122904 -0.0372504 -0.998905 0.0283702
0.354085 -0.430468 -0.12345 -0.0881807 -0.996104 0.00158124
0.343553 -0.429143 -0.124133 -0.164437 -0.985754 -0.0353615
0.333821 -0.427353 -0.124923 -0.22592 -0.970621 -0.0828016
0.324539 -0.425317 -0.125761 -0.287764 -0.950007 -0.121155
0.315829 -0.422946 -0.126664 -0.357044 -0.920024 -0.161478
0.308067 -0.42002 -0.127699 -0.411439 -0.88938 -0.199301
0.301541 -0.41633 -0.128893 -0.464995 -0.854428 -0.231804
0.296067 -0.411994 -0.130231 -0.519751 -0.811131 -0.268191
0.291102 -0.407353 -0.131633 -0.551849 -0.781388 -0.291367
0.286827 -0.40228 -0.133138 -0.583576 -0.748564 -0.314786
0.282715 -0.3971 -0.13466 -0.609835 -0.716733 -0.338222
0.278238 -0.39216 -0.136127 -0.627741 -0.692533 -0.355442
0.273625 -0.387315 -0.137576 -0.639074 -0.672095 -0.373999
0.269136 -0.382397 -0.13904 -0.644097 -0.658848 -0.388665
0.265332 -0.377042 -0.140606 -0.65334 -0.642358 -0.400654
0.261287 -0.371839 -0.142128 -0.664873 -0.625328 -0.408545
0.257382 -0.366551 -0.143681 -0.681247 -0.605946 -0.410772
0.253506 -0.361251 -0.145224 -0.701341 -0.582372 -0.411052
0.249986 -0.35571 -0.146825 -0.7241 -0.553861 -0.410997
0.246838 -0.349931 -0.148486 -0.752455 -0.521971 -0.401695
0.244257 -0.343777 -0.150222 -0.774712 -0.495751 -0.392498
0.241517 -0.337723 -0.151936 -0.798027 -0.466406 -0.381603
0.238457 -0.331882 -0.153603 -0.821141 -0.440282 -0.363151
0.235251 -0.326135 -0.155253 -0.839785 -0.418113 -0.346327
0.23273 -0.319921 -0.157008 -0.856511 -0.397215 -0.329559
0.230474 -0.313534 -0.158793 -0.869433 -0.380932 -0.314604
0.228819 -0.306734 -0.160683 -0.878299 -0.364968 -0.308852
0.227803 -0.299488 -0.16266 -0.886711 -0.346497 -0.306081
0.226425 -0.292476 -0.164598 -0.890017 -0.336808 -0.307294
0.22494 -0.285533 -0.166516 -0.891306 -0.33334 -0.307343
0.223248 -0.278716 -0.168398 -0.887324 -0.349819 -0.300474
0.221542 -0.271901 -0.170289 -0.87977 -0.373769 -0.29377
0.22008 -0.264911 -0.172222 -0.870046 -0.404777 -0.28138
0.217846 -0.258444 -0.174032 -0.858008 -0.437299 -0.269429
0.215149 -0.252289 -0.175772 -0.845365 -0.469564 -0.254692
0.211075 -0.247096 -0.177293 -0.836573 -0.491775 -0.241462
0.206548 -0.242219 -0.178751 -0.83349 -0.501458 -0.232021
0.202034 -0.237334 -0.180209 -0.844564 -0.489014 -0.218123
0.198031 -0.2321 -0.181742 -0.857188 -0.470717 -0.208939
0.194889 -0.226257 -0.183418 -0.874613 -0.438498 -0.206815
0.192344 -0.219989 -0.185185 -0.896453 -0.392497 -0.205713
0.190411 -0.21328 -0.187048 -0.914789 -0.339498 -0.218867
0.18927 -0.206008 -0.189042 -0.928789 -0.287252 -0.234173
0.188728 -0.198286 -0.191142 -0.935698 -0.246636 -0.252266
0.188395 -0.190402 -0.193277 -0.938576 -0.226334 -0.260476
0.188 -0.182544 -0.195403 -0.932895 -0.222916 -0.282869
0.187077 -0.175052 -0.197452 -0.935076 -0.223449 -0.275145
0.185443 -0.168068 -0.199383 -0.935649 -0.226379 -0.270769
0.183882 -0.161016 -0.201332 -0.933393 -0.227386 -0.27762
0.182287 -0.153982 -0.20328 -0.937212 -0.20546 -0.281816
0.181017 -0.146701 -0.20528 -0.942353 -0.16683 -0.290066
0.18015 -0.13911 -0.207355 -0.944006 -0.121979 -0.306553
0.179963 -0.131004 -0.209543 -0.934058 -0.0960428 -0.343965
0.180611 -0.122259 -0.211876 -0.915587 -0.08511 -0.39301
0.183622 -0.111724 -0.214619 -0.883685 -0.101749 -0.456889
0.189001 -0.0993964 -0.217777 -0.832716 -0.158382 -0.530566
0.191344 -0.0892999 -0.220423 -0.771058 -0.25935 -0.581557
0.19052 -0.0815494 -0.222539 -0.679392 -0.387112 -0.623355
0.184209 -0.077937 -0.223706 -0.617804 -0.461785 -0.636453
0.177134 -0.074905 -0.224741 -0.563142 -0.509921 -0.650271
0.170386 -0.071658 -0.225822 -0.504373 -0.560861 -0.656539
0.165548 -0.0669631 -0.227241 -0.463349 -0.596414 -0.655437
0.161818 -0.0614269 -0.228851 -0.445062 -0.594849 -0.669384
0.158486 -0.0555908 -0.230527 -0.449138 -0.582122 -0.677798
0.155129 -0.0497697 -0.232201 -0.467076 -0.557107 -0.68664
0.150858 -0.0446488 -0.233708 -0.496659 -0.527803 -0.689024
0.14631 -0.0397503 -0.235172 -0.519919 -0.47707 -0.708582
0.142603 -0.0342087 -0.23678 -0.536628 -0.45341 -0.711653
0.146924 -0.0223869 -0.239831 -0.563632 -0.417382 -0.712821
0.682739 -0.504206 -0.100878 0.178437 -0.973815 -0.140878
0.660255 -0.508336 -0.100423 0.118369 -0.982768 -0.141978
0.643725 -0.509329 -0.100649 0.0497527 -0.987568 -0.149117
0.626343 -0.510834 -0.100753 -0.0247133 -0.98409 -0.17595
0.613502 -0.509921 -0.101382 -0.0793434 -0.976952 -0.198168
0.603036 -0.507745 -0.102273 -0.119894 -0.966935 -0.225085
0.593911 -0.50486 -0.103325 -0.137502 -0.960025 -0.243817
0.584383 -0.502225 -0.104316 -0.153018 -0.948708 -0.276658
0.572234 -0.501072 -0.104987 -0.16206 -0.940385 -0.299022
0.560137 -0.499922 -0.105659 -0.170601 -0.931433 -0.321451
0.548719 -0.498437 -0.106395 -0.196336 -0.922606 -0.33204
0.538607 -0.496244 -0.10729 -0.231402 -0.912072 -0.338493
0.529842 -0.493327 -0.108334 -0.283666 -0.895742 -0.342318
0.521648 -0.490114 -0.10945 -0.326129 -0.879334 -0.347004
0.513596 -0.486833 -0.110569 -0.372794 -0.857969 -0.353433
0.50583 -0.483413 -0.111728 -0.401437 -0.838547 -0.368357
0.498988 -0.479481 -0.112992 -0.43136 -0.817774 -0.381018
0.493212 -0.474946 -0.114386 -0.442172 -0.80127 -0.403053
0.48813 -0.470026 -0.115872 -0.454405 -0.783965 -0.422984
0.48262 -0.465362 -0.117291 -0.467086 -0.763498 -0.445985
0.476822 -0.460875 -0.118677 -0.48558 -0.741079 -0.463697
0.470915 -0.456452 -0.120051 -0.504653 -0.719017 -0.477849
0.464854 -0.452142 -0.121395 -0.522295 -0.699458 -0.487819
0.458695 -0.447887 -0.12272 -0.537978 -0.689242 -0.48531
0.453126 -0.443309 -0.124124 -0.552024 -0.681991 -0.479748
0.449318 -0.437692 -0.12576 -0.492516 -0.746734 -0.447009
0.446294 -0.431609 -0.127488 -0.464543 -0.775999 -0.426646
0.443685 -0.425268 -0.12928 -0.442927 -0.803701 -0.397343
0.439804 -0.4197 -0.130902 -0.388721 -0.847236 -0.36206
0.435165 -0.414584 -0.132425 -0.205 -0.946612 -0.2488
0.404164 -0.425401 -0.130414 0.0473264 -0.998564 -0.0251034
0.383555 -0.430045 -0.129771 0.0707081 -0.996875 0.0352629
0.368833 -0.431174 -0.129897 -0.0363333 -0.999338 -0.00263901
0.357115 -0.430534 -0.130416 -0.0904456 -0.995568 -0.0257894
0.346428 -0.429286 -0.131072 -0.173992 -0.982039 -0.0730024
0.336682 -0.427501 -0.131845 -0.224527 -0.968479 -0.107878
0.32756 -0.425351 -0.132695 -0.295028 -0.943206 -0.15271
0.319246 -0.422731 -0.133645 -0.348269 -0.919175 -0.183921
0.31212 -0.419388 -0.134759 -0.414995 -0.880866 -0.227716
0.305601 -0.415695 -0.135954 -0.466462 -0.844647 -0.262652
0.300582 -0.411067 -0.13735 -0.512689 -0.805741 -0.296534
0.296536 -0.405833 -0.138886 -0.543522 -0.777626 -0.316043
0.292741 -0.400435 -0.140454 -0.580737 -0.738575 -0.342419
0.289028 -0.395 -0.142039 -0.604936 -0.705843 -0.368564
0.28476 -0.389912 -0.143537 -0.623595 -0.683641 -0.379167
0.279603 -0.3854 -0.144912 -0.636559 -0.665287 -0.390114
0.273466 -0.381524 -0.146139 -0.642612 -0.651532 -0.403181
0.268886 -0.37666 -0.14759 -0.650007 -0.639006 -0.411294
0.264384 -0.37175 -0.149053 -0.659307 -0.626008 -0.416448
0.260313 -0.366564 -0.150573 -0.672639 -0.610389 -0.418311
0.256154 -0.361437 -0.152079 -0.691074 -0.590357 -0.417008
0.252344 -0.356085 -0.153646 -0.715703 -0.562904 -0.413411
0.248963 -0.350455 -0.155262 -0.740728 -0.535854 -0.405196
0.245938 -0.344586 -0.156941 -0.760419 -0.514317 -0.396537
0.243204 -0.33853 -0.15866 -0.785643 -0.488152 -0.380097
0.240574 -0.332397 -0.160396 -0.811128 -0.462141 -0.358467
0.237672 -0.326439 -0.162093 -0.831294 -0.440147 -0.339443
0.235552 -0.319958 -0.163905 -0.850038 -0.41784 -0.320696
0.233706 -0.313293 -0.165765 -0.86657 -0.395098 -0.304884
0.232378 -0.306258 -0.167704 -0.879881 -0.369541 -0.298746
0.230612 -0.299521 -0.169574 -0.889438 -0.349078 -0.295033
0.228551 -0.292963 -0.171406 -0.89521 -0.334563 -0.294392
0.226361 -0.286498 -0.17322 -0.895677 -0.331819 -0.296072
0.224943 -0.279492 -0.17516 -0.891635 -0.34986 -0.287379
0.223518 -0.272488 -0.177094 -0.883595 -0.374823 -0.280653
0.222334 -0.265303 -0.179072 -0.871646 -0.406705 -0.273541
0.219799 -0.259038 -0.180838 -0.857393 -0.440581 -0.266016
0.216608 -0.253231 -0.182502 -0.842511 -0.473122 -0.25755
0.212349 -0.248155 -0.184006 -0.830908 -0.495929 -0.25228
0.20816 -0.243037 -0.185511 -0.824157 -0.511854 -0.242428
0.204006 -0.2379 -0.18702 -0.830471 -0.504504 -0.236208
0.20005 -0.232631 -0.188564 -0.842456 -0.483421 -0.237851
0.19657 -0.227026 -0.190184 -0.861843 -0.446476 -0.240594
0.193537 -0.221101 -0.191877 -0.882978 -0.403961 -0.239092
0.191454 -0.214505 -0.193718 -0.903962 -0.342293 -0.256297
0.190092 -0.20738 -0.195682 -0.919494 -0.285405 -0.270326
0.189565 -0.199652 -0.197789 -0.927998 -0.244435 -0.281196
0.189873 -0.191303 -0.200038 -0.927552 -0.228779 -0.29548
0.190212 -0.182918 -0.202291 -0.926396 -0.225382 -0.301652
0.189816 -0.175046 -0.204436 -0.922685 -0.234544 -0.306008
0.188027 -0.168171 -0.206349 -0.926622 -0.231081 -0.296602
0.186175 -0.161322 -0.208253 -0.927589 -0.231701 -0.293074
0.184198 -0.154571 -0.210137 -0.933259 -0.205079 -0.294906
0.18317 -0.147107 -0.212181 -0.93946 -0.157897 -0.30411
0.182618 -0.139284 -0.214314 -0.941937 -0.105918 -0.318646
0.182654 -0.131008 -0.216553 -0.937305 -0.052901 -0.344471
0.183791 -0.121897 -0.218983 -0.917812 -0.0401671 -0.394976
0.187498 -0.110843 -0.221861 -0.882978 -0.0485076 -0.466902
0.192057 -0.0991225 -0.224889 -0.8492 -0.0950469 -0.519446
0.195736 -0.0880255 -0.227782 -0.780186 -0.224696 -0.5838
0.195863 -0.0795541 -0.230075 -0.713624 -0.32998 -0.617944
0.190978 -0.0748388 -0.231487 -0.649024 -0.40547 -0.64371
0.184192 -0.0715894 -0.232572 -0.569803 -0.500584 -0.651722
0.17808 -0.0678257 -0.233771 -0.527818 -0.527612 -0.665608
0.173379 -0.0630064 -0.235206 -0.479545 -0.577576 -0.660638
0.169072 -0.0578969 -0.236713 -0.459897 -0.58255 -0.670171
0.165398 -0.0522959 -0.238342 -0.459635 -0.575368 -0.676526
0.162072 -0.0464393 -0.240021 -0.475567 -0.545182 -0.690372
0.158456 -0.0408022 -0.241652 -0.491842 -0.518234 -0.69966
0.153429 -0.036257 -0.24303 -0.506612 -0.494556 -0.706229
0.149992 -0.0304816 -0.244693 -0.518953 -0.473781 -0.711492
0.158752 -0.0151773 -0.248572 -0.541687 -0.441814 -0.715106
0.668812 -0.505699 -0.108373 0.141442 -0.975353 -0.169354
0.649637 -0.508093 -0.108259 0.0723545 -0.981615 -0.17663
0.63327 -0.509034 -0.108459 -0.00322666 -0.982304 -0.187267
0.618837 -0.508965 -0.108885 -0.0805472 -0.972364 -0.219137
0.607157 -0.50744 -0.109623 -0.129778 -0.961482 -0.242302
0.597786 -0.504686 -0.110637 -0.14189 -0.955625 -0.258162
0.588964 -0.501647 -0.111706 -0.168485 -0.942943 -0.28718
0.579874 -0.498789 -0.112734 -0.167902 -0.935657 -0.310413
0.567645 -0.497693 -0.113375 -0.171683 -0.926128 -0.335877
0.555749 -0.49645 -0.114051 -0.185792 -0.916922 -0.353181
0.544989 -0.494611 -0.11485 -0.214892 -0.906323 -0.363869
0.535848 -0.491884 -0.115844 -0.248351 -0.890908 -0.380269
0.527837 -0.488553 -0.116971 -0.296111 -0.871564 -0.390761
0.519816 -0.485235 -0.118097 -0.344945 -0.852212 -0.39338
0.511352 -0.482202 -0.119158 -0.388322 -0.827574 -0.405374
0.503915 -0.478596 -0.120344 -0.415162 -0.808958 -0.416207
0.497563 -0.474387 -0.121667 -0.436928 -0.787041 -0.435501
0.492339 -0.469539 -0.123127 -0.4491 -0.766161 -0.459681
0.487698 -0.464362 -0.124664 -0.458439 -0.744701 -0.48503
0.482887 -0.45928 -0.126171 -0.471325 -0.723932 -0.503761
0.476992 -0.45485 -0.127545 -0.487371 -0.706123 -0.513674
0.471598 -0.450127 -0.128975 -0.501465 -0.693904 -0.51675
0.465858 -0.44562 -0.13036 -0.509987 -0.692349 -0.510457
0.459584 -0.441434 -0.131672 -0.52649 -0.689916 -0.496816
0.454315 -0.436672 -0.133107 -0.470683 -0.756632 -0.453835
0.450322 -0.431152 -0.13472 -0.443022 -0.783796 -0.435197
0.447253 -0.425086 -0.136449 -0.419176 -0.81387 -0.402378
0.443009 -0.419721 -0.138026 -0.376716 -0.848 -0.372804
0.437821 -0.414929 -0.139467 -0.176919 -0.952192 -0.24906
0.407526 -0.425297 -0.137507 0.0589331 -0.997531 -0.0381887
0.38773 -0.429434 -0.13694 0.0885338 -0.995993 0.0127056
0.373397 -0.430316 -0.137104 -0.0342963 -0.998848 -0.033598
0.361049 -0.430045 -0.137524 -0.0869545 -0.994624 -0.0562478
0.350315 -0.428819 -0.138154 -0.17947 -0.977604 -0.109916
0.340748 -0.426908 -0.138941 -0.228453 -0.963426 -0.140078
0.331661 -0.424728 -0.139788 -0.29438 -0.940212 -0.171299
0.323454 -0.422026 -0.140748 -0.348929 -0.914121 -0.206478
0.316219 -0.418745 -0.141841 -0.413165 -0.875313 -0.251243
0.30978 -0.414983 -0.143044 -0.468809 -0.833837 -0.291438
0.304408 -0.41057 -0.144391 -0.508548 -0.798384 -0.322432
0.299504 -0.405867 -0.145802 -0.543471 -0.766123 -0.343069
0.295015 -0.400907 -0.147275 -0.578015 -0.729361 -0.365969
0.291114 -0.39558 -0.148828 -0.603686 -0.69609 -0.388618
0.287051 -0.390364 -0.150363 -0.621255 -0.673156 -0.401126
0.282744 -0.385297 -0.151852 -0.629439 -0.660019 -0.410099
0.277664 -0.38074 -0.15323 -0.63856 -0.646835 -0.416948
0.272675 -0.376131 -0.154628 -0.646066 -0.636746 -0.420897
0.267909 -0.37138 -0.156045 -0.654284 -0.626833 -0.423076
0.263588 -0.366349 -0.157536 -0.666185 -0.614126 -0.42314
0.259154 -0.361391 -0.159003 -0.681611 -0.598668 -0.420716
0.255042 -0.356237 -0.160518 -0.697135 -0.579509 -0.422104
0.251475 -0.350722 -0.162108 -0.724577 -0.555185 -0.408359
0.248185 -0.345025 -0.163748 -0.751078 -0.532069 -0.390877
0.245267 -0.339085 -0.165443 -0.774053 -0.509354 -0.376031
0.242745 -0.332871 -0.167196 -0.79851 -0.489132 -0.350904
0.240384 -0.326559 -0.16898 -0.820129 -0.467596 -0.329762
0.239056 -0.319541 -0.170917 -0.840932 -0.441118 -0.313445
0.237571 -0.312626 -0.172835 -0.86049 -0.411433 -0.300468
0.236067 -0.305712 -0.174754 -0.878644 -0.378673 -0.290846
0.233072 -0.299791 -0.176443 -0.891159 -0.353113 -0.284866
0.230265 -0.293744 -0.178166 -0.898712 -0.334808 -0.283231
0.227655 -0.287557 -0.179914 -0.90088 -0.329825 -0.28219
0.22656 -0.280331 -0.181908 -0.896092 -0.346325 -0.27763
0.225499 -0.273075 -0.183907 -0.888152 -0.370112 -0.2724
0.224736 -0.265595 -0.185954 -0.873851 -0.403781 -0.270828
0.222066 -0.259426 -0.187703 -0.857991 -0.438725 -0.267155
0.218657 -0.253754 -0.189339 -0.841164 -0.471686 -0.264492
0.214476 -0.248632 -0.190847 -0.827655 -0.495995 -0.262631
0.210365 -0.243453 -0.192368 -0.816796 -0.516492 -0.257063
0.206277 -0.238269 -0.193889 -0.8196 -0.509069 -0.262878
0.202133 -0.233123 -0.195397 -0.831627 -0.488857 -0.263468
0.198486 -0.227632 -0.196989 -0.847928 -0.452875 -0.27554
0.195307 -0.221801 -0.198658 -0.869565 -0.403305 -0.284962
0.193103 -0.215285 -0.200492 -0.886181 -0.345095 -0.30918
0.191795 -0.208129 -0.202465 -0.898978 -0.290959 -0.327387
0.191114 -0.200511 -0.204554 -0.90695 -0.251382 -0.338007
0.191165 -0.192347 -0.206767 -0.909667 -0.238752 -0.339858
0.191675 -0.18384 -0.209064 -0.908034 -0.239679 -0.343552
0.192372 -0.175173 -0.21139 -0.909356 -0.246845 -0.334869
0.190688 -0.168211 -0.213329 -0.914097 -0.249565 -0.3196
0.188789 -0.1614 -0.215229 -0.917761 -0.244248 -0.313142
0.186795 -0.154651 -0.217114 -0.92728 -0.208758 -0.310763
0.185767 -0.147189 -0.219166 -0.933236 -0.167759 -0.317688
0.185562 -0.139097 -0.221368 -0.938398 -0.0976147 -0.331483
0.186215 -0.130364 -0.223721 -0.934549 -0.020324 -0.355256
0.188268 -0.120572 -0.226323 -0.916184 0.0200532 -0.400257
0.191332 -0.109996 -0.2291 -0.887135 0.00599718 -0.461471
0.194461 -0.0993416 -0.231906 -0.854524 -0.0589511 -0.516057
0.199631 -0.0871204 -0.235076 -0.802317 -0.165234 -0.573571
0.20132 -0.0774729 -0.237651 -0.73854 -0.272998 -0.616467
0.198434 -0.0712413 -0.239418 -0.662959 -0.409366 -0.626822
0.191588 -0.0680051 -0.240489 -0.601521 -0.45822 -0.654375
0.185251 -0.064405 -0.241639 -0.55015 -0.501841 -0.667451
0.180658 -0.0594789 -0.243106 -0.508411 -0.546999 -0.665065
0.176442 -0.0542842 -0.244632 -0.475677 -0.569484 -0.670387
0.172738 -0.0486901 -0.246253 -0.476203 -0.552305 -0.684245
0.169336 -0.0428704 -0.247931 -0.48443 -0.542994 -0.68592
0.16561 -0.0372982 -0.249549 -0.497664 -0.521406 -0.693156
0.160006 -0.0331806 -0.250825 -0.511524 -0.498027 -0.700224
0.157108 -0.0269729 -0.252587 -0.525222 -0.477202 -0.704572
0.172375 -0.00658492 -0.257694 -0.560665 -0.425609 -0.710291
0.679462 -0.501941 -0.1166 0.18215 -0.960501 -0.210378
0.657736 -0.505687 -0.11615 0.102494 -0.970155 -0.219766
0.640325 -0.507168 -0.116208 0.0229191 -0.976132 -0.215973
0.624546 -0.507815 -0.116456 -0.063476 -0.968615 -0.240331
0.611667 -0.506938 -0.117033 -0.118082 -0.957738 -0.262288
0.601991 -0.504333 -0.118 -0.145833 -0.949344 -0.278354
0.593518 -0.501098 -0.119107 -0.17118 -0.935405 -0.30938
0.585215 -0.49778 -0.120228 -0.182039 -0.927062 -0.327749
0.575837 -0.495086 -0.12121 -0.180879 -0.918588 -0.351396
0.564284 -0.493636 -0.121912 -0.188992 -0.909058 -0.371346
0.552133 -0.49255 -0.122528 -0.204192 -0.898809 -0.387881
0.541881 -0.490432 -0.123378 -0.230857 -0.883727 -0.407103
0.533705 -0.487176 -0.12448 -0.270319 -0.864728 -0.423289
0.526082 -0.483627 -0.125648 -0.315656 -0.841557 -0.438342
0.518471 -0.480084 -0.126811 -0.356637 -0.81747 -0.452277
0.510166 -0.476964 -0.127884 -0.397726 -0.789673 -0.467153
0.502949 -0.473229 -0.129091 -0.420337 -0.768493 -0.482428
0.496919 -0.468838 -0.130444 -0.438512 -0.744782 -0.502998
0.492459 -0.463549 -0.132006 -0.450472 -0.724467 -0.521751
0.488315 -0.458075 -0.133608 -0.45836 -0.706795 -0.53884
0.483796 -0.452823 -0.135152 -0.465316 -0.699334 -0.542599
0.478869 -0.447811 -0.136645 -0.474075 -0.693959 -0.541917
0.473888 -0.44284 -0.138134 -0.482293 -0.704309 -0.520905
0.46885 -0.437909 -0.13961 -0.494925 -0.710486 -0.500261
0.462392 -0.433826 -0.140891 -0.468113 -0.753004 -0.462447
0.455943 -0.429756 -0.142169 -0.434754 -0.794396 -0.424177
0.45131 -0.424609 -0.143699 -0.402921 -0.830051 -0.385578
0.446452 -0.419605 -0.145183 -0.300216 -0.902884 -0.307689
0.438455 -0.416484 -0.146245 -0.154226 -0.961141 -0.22896
0.410724 -0.425299 -0.144581 0.0790745 -0.99513 -0.0588459
0.391032 -0.429359 -0.144 0.107244 -0.994201 -0.0081472
0.376738 -0.430201 -0.144146 -0.0284754 -0.997401 -0.0661932
0.364261 -0.429994 -0.144539 -0.0852621 -0.992598 -0.0864939
0.353671 -0.428672 -0.145178 -0.182226 -0.973459 -0.138462
0.343994 -0.426822 -0.145939 -0.230217 -0.959223 -0.163988
0.335126 -0.424494 -0.146807 -0.296883 -0.933534 -0.200936
0.327376 -0.421499 -0.147826 -0.352089 -0.905419 -0.23717
0.320225 -0.418158 -0.148925 -0.409268 -0.869929 -0.275178
0.313459 -0.414594 -0.150074 -0.470169 -0.82272 -0.31949
0.307623 -0.410458 -0.151358 -0.507682 -0.787959 -0.348399
0.302322 -0.406 -0.152709 -0.541929 -0.75532 -0.368521
0.297399 -0.401309 -0.154119 -0.572069 -0.722087 -0.38901
0.293224 -0.396157 -0.155633 -0.596904 -0.691437 -0.406963
0.289176 -0.390923 -0.157161 -0.615062 -0.666319 -0.421565
0.285194 -0.385651 -0.158702 -0.624692 -0.653757 -0.427042
0.280728 -0.380685 -0.160173 -0.631609 -0.64497 -0.430214
0.27616 -0.375795 -0.161621 -0.639378 -0.636243 -0.43173
0.271796 -0.370779 -0.163105 -0.648038 -0.627124 -0.43216
0.26717 -0.365941 -0.164546 -0.657184 -0.61729 -0.432508
0.262564 -0.361089 -0.165989 -0.669668 -0.604578 -0.431315
0.258254 -0.356049 -0.167472 -0.68658 -0.5903 -0.424445
0.254557 -0.350623 -0.169053 -0.706219 -0.575157 -0.412856
0.25122 -0.34495 -0.170683 -0.733095 -0.555093 -0.392994
0.24812 -0.339116 -0.172353 -0.758001 -0.534926 -0.373216
0.245879 -0.332724 -0.174155 -0.783103 -0.513626 -0.350624
0.243874 -0.32616 -0.175989 -0.804891 -0.491242 -0.332916
0.242831 -0.318948 -0.177985 -0.825561 -0.467115 -0.316626
0.240918 -0.312315 -0.179844 -0.849736 -0.43288 -0.300939
0.23824 -0.306177 -0.181586 -0.872604 -0.392046 -0.29131
0.234654 -0.300657 -0.183178 -0.888925 -0.359239 -0.284183
0.231487 -0.294846 -0.18485 -0.89902 -0.336889 -0.279768
0.228722 -0.288767 -0.186578 -0.902399 -0.331967 -0.274728
0.22797 -0.281308 -0.188627 -0.898945 -0.341969 -0.273779
0.227342 -0.27375 -0.190697 -0.889481 -0.366175 -0.273387
0.22688 -0.266073 -0.192801 -0.875169 -0.399305 -0.273197
0.224303 -0.259824 -0.194568 -0.857432 -0.432686 -0.278554
0.221103 -0.254016 -0.196241 -0.839658 -0.463523 -0.283055
0.217121 -0.248744 -0.197781 -0.822906 -0.49438 -0.280027
0.21286 -0.243667 -0.199276 -0.810638 -0.510341 -0.287087
0.208626 -0.238574 -0.200773 -0.80931 -0.513001 -0.286094
0.204396 -0.233489 -0.202267 -0.819574 -0.483327 -0.307722
0.201057 -0.227769 -0.203917 -0.832927 -0.450811 -0.32094
0.198182 -0.221729 -0.205639 -0.847789 -0.395046 -0.353826
0.196549 -0.214805 -0.207563 -0.861483 -0.339477 -0.377629
0.195444 -0.207489 -0.209579 -0.872378 -0.2931 -0.391216
0.194555 -0.20001 -0.211646 -0.877197 -0.267533 -0.398687
0.194429 -0.191975 -0.213836 -0.883648 -0.261088 -0.388587
0.194672 -0.18365 -0.216091 -0.889204 -0.261495 -0.375416
0.194579 -0.175557 -0.218301 -0.893768 -0.268609 -0.359205
0.192555 -0.168843 -0.220181 -0.9007 -0.271493 -0.339163
0.190597 -0.162067 -0.222078 -0.907946 -0.255685 -0.332052
0.18861 -0.155316 -0.223971 -0.921358 -0.213632 -0.324748
0.187663 -0.147784 -0.226048 -0.928267 -0.179533 -0.325713
0.187752 -0.139481 -0.228303 -0.935902 -0.0886516 -0.340923
0.188727 -0.13051 -0.230715 -0.932067 -0.00322433 -0.362274
